ply
format ascii 1.0
comment VCGLIB generated
element vertex 1932
property float x
property float y
property float z
element face 0
property list uchar int vertex_indices
end_header
7.18683 2.03487 -2.825 
7.18683 2.03487 -13.085 
6.68813 1.98716 6.035 
7.18786 2.00364 -2.065 
6.68916 1.95592 3.395 
6.69019 1.92469 -10.275 
6.69019 1.92469 8.595 
7.18992 1.94117 10.635 
7.19301 1.84747 -8.385 
6.69431 1.79976 -7.465 
6.69637 1.73729 11.425 
6.6974 1.70606 -18.325 
6.6974 1.70606 8.795 
6.19768 1.68958 13.225 
7.19816 1.69131 10.885 
6.69843 1.67483 -4.785 
6.7005 1.61236 -16.365 
6.70153 1.58113 -2.015 
7.20125 1.59761 -2.815 
6.70153 1.58113 -15.535 
6.70153 1.58113 13.245 
7.20228 1.56637 13.345 
6.70256 1.54989 7.915 
7.20228 1.56637 -2.065 
7.20434 1.50391 8.715 
6.70565 1.45619 -12.865 
6.70565 1.45619 0.615002 
6.70874 1.3625 -10.065 
6.70874 1.3625 3.415 
6.70977 1.33126 -10.775 
6.70977 1.33126 2.595 
7.21052 1.31651 -10.105 
7.21052 1.31651 3.385 
6.71183 1.2688 -18.765 
6.71286 1.23756 -18.165 
6.71389 1.20633 -7.435 
7.21361 1.22281 -8.255 
6.71389 1.20633 5.995 
7.21567 1.16035 -16.385 
6.71801 1.0814 8.145 
6.71904 1.05017 -4.475 
6.7211 0.987699 -15.525 
7.22185 0.972947 -2.875 
6.72213 0.956466 -2.095 
6.72419 0.894 -10.125 
7.22391 0.910481 11.675 
7.22391 0.910481 -10.905 
7.22391 0.910481 -18.905 
6.72625 0.831534 0.605 
6.72831 0.769068 -7.475 
7.22906 0.754316 -16.045 
6.72934 0.737835 3.425 
7.22906 0.754316 2.435 
7.23112 0.69185 3.325 
6.73243 0.644136 -12.855 
6.73243 0.644136 -18.245 
6.73346 0.612903 5.445 
6.73346 0.612903 6.095 
7.23524 0.566918 -19.075 
6.73655 0.519204 -2.055 
7.23628 0.535685 -11.025 
6.73758 0.487971 -10.175 
7.23731 0.504452 7.985 
7.23731 0.504452 -2.315 
6.73861 0.456738 8.735 
6.73861 0.456738 -9.355 
6.73964 0.425505 0.715 
6.74067 0.394272 -15.565 
6.74067 0.394272 0.535 
6.7417 0.363039 -7.555 
6.7417 0.363039 11.355 
6.74376 0.300573 -13.565 
6.74479 0.26934 3.395 
6.74479 0.26934 -4.665 
7.24452 0.285821 -5.645 
7.24452 0.285821 2.465 
7.24452 0.285821 -12.795 
7.24658 0.223355 -4.785 
6.74891 0.144408 5.855 
6.74994 0.113175 -18.245 
7.2507 0.0984227 -18.825 
6.752 0.0507089 -7.985 
7.25173 0.0671897 7.865 
6.75303 0.0194759 -7.355 
7.25276 0.0359566 -0.0750008 
6.75406 -0.0117572 -16.185 
6.75509 -0.0429902 -2.095 
6.75715 -0.105456 11.325 
7.25688 -0.0889754 -5.045 
6.75715 -0.105456 8.715 
6.75715 -0.105456 3.325 
6.75818 -0.136689 -12.825 
7.25791 -0.120208 -13.675 
6.75921 -0.167922 0.674999 
6.76127 -0.230388 -15.475 
6.7623 -0.261621 -10.235 
6.76333 -0.292854 -18.355 
7.26409 -0.307607 -0.295002 
6.76539 -0.35532 -12.875 
7.26615 -0.370073 -8.245 
7.26615 -0.370073 5.185 
7.26615 -0.370073 -16.375 
6.76745 -0.417786 6.025 
7.26821 -0.432539 -15.545 
7.26821 -0.432539 10.535 
7.27027 -0.495005 11.425 
6.77054 -0.511485 -7.495 
6.77054 -0.511485 -4.745 
6.77363 -0.605185 -1.975 
6.77466 -0.636418 -10.975 
7.27439 -0.619937 -2.245 
6.77569 -0.667651 -10.115 
6.77569 -0.667651 8.215 
6.77672 -0.698884 8.805 
7.27851 -0.744869 -4.495 
7.27954 -0.776102 -8.265 
7.28057 -0.807335 -17.935 
7.2816 -0.838568 11.655 
6.78187 -0.855049 3.555 
7.2816 -0.838568 2.675 
7.28263 -0.869801 -16.365 
6.78393 -0.917515 -15.525 
6.78702 -1.01121 0.664997 
6.78805 -1.04245 -12.925 
7.28778 -1.02597 -2.695 
6.78805 -1.04245 -2.045 
6.79011 -1.10491 8.745 
6.79011 -1.10491 8.035 
6.79114 -1.13615 0.00500107 
7.29087 -1.11967 -10.915 
6.79114 -1.13615 -10.155 
6.79217 -1.16738 3.385 
6.79217 -1.16738 -18.185 
7.29396 -1.21336 -18.425 
6.79423 -1.22984 11.455 
7.29499 -1.2446 10.525 
6.79526 -1.26108 6.045 
7.29499 -1.2446 2.385 
6.79526 -1.26108 -7.505 
7.29602 -1.27583 -8.315 
6.79835 -1.35478 -4.715 
7.29911 -1.36953 -5.535 
6.79938 -1.38601 5.375 
6.79938 -1.38601 8.725 
7.30014 -1.40076 -4.765 
6.80144 -1.44848 -13.445 
7.3022 -1.46323 11.495 
6.8035 -1.51094 -15.465 
7.30323 -1.49446 -16.285 
7.30323 -1.49446 7.835 
6.8035 -1.51094 -2.105 
6.80556 -1.57341 -12.765 
6.80556 -1.57341 -10.145 
7.30529 -1.55693 -10.985 
6.80659 -1.60464 0.774998 
6.80659 -1.60464 10.755 
7.30735 -1.61939 0.0249977 
7.30838 -1.65063 0.715 
6.80968 -1.69834 -18.225 
7.30941 -1.68186 -18.785 
7.31044 -1.71309 -15.495 
6.81174 -1.76081 3.345 
7.31147 -1.74433 2.465 
6.8138 -1.82327 -4.735 
7.31353 -1.80679 -13.725 
7.31353 -1.80679 3.355 
7.31353 -1.80679 -5.575 
6.81483 -1.85451 5.245 
6.81586 -1.88574 6.105 
6.81689 -1.91697 -10.805 
7.31662 -1.90049 -16.405 
7.31765 -1.93172 -12.865 
6.81895 -1.97944 -10.165 
6.81895 -1.97944 8.715 
6.81998 -2.01067 -7.475 
7.32074 -2.02542 -8.215 
6.82101 -2.0419 0.695004 
7.3228 -2.08789 -7.485 
7.3228 -2.08789 0.435001 
7.32383 -2.11912 11.305 
7.32486 -2.15035 -11.015 
6.82513 -2.16684 2.685 
6.82616 -2.19807 -4.775 
7.32692 -2.21282 -19.125 
6.82719 -2.2293 -18.115 
7.32795 -2.24405 -18.315 
6.82925 -2.29177 -2.065 
7.32898 -2.27529 -2.775 
7.32898 -2.27529 5.125 
6.83131 -2.35423 -15.535 
7.3331 -2.40022 -0.304996 
6.8344 -2.44793 -12.865 
7.33516 -2.46268 -13.425 
6.83646 -2.5104 3.405 
7.33619 -2.49392 -12.765 
7.33722 -2.52515 2.475 
7.33722 -2.52515 10.735 
6.83852 -2.57286 0.655003 
7.33825 -2.55638 3.375 
6.83955 -2.6041 -10.125 
6.84058 -2.63533 6.085 
7.34031 -2.61885 -10.395 
6.84058 -2.63533 -0.0150032 
6.84367 -2.72903 -8.035 
6.84367 -2.72903 8.765 
7.34443 -2.74378 -7.385 
6.84573 -2.7915 -18.055 
7.34546 -2.77502 5.225 
6.84573 -2.7915 11.455 
7.34649 -2.80625 8.805 
7.34649 -2.80625 3.115 
7.34752 -2.83748 -18.025 
6.84779 -2.85396 -4.685 
7.34855 -2.86871 -4.955 
7.34958 -2.89995 8.035 
6.84985 -2.91643 -15.555 
7.34958 -2.89995 10.905 
6.85191 -2.97889 -2.635 
6.85294 -3.01013 -2.015 
6.85294 -3.01013 -12.785 
7.35267 -2.99365 -13.675 
7.35473 -3.05611 -12.845 
6.85603 -3.10383 0.695004 
7.35576 -3.08735 -0.164997 
7.35679 -3.11858 0.685001 
6.85809 -3.16629 -10.165 
6.86015 -3.22876 3.325 
6.86118 -3.25999 -8.165 
6.86221 -3.29122 -7.415 
6.86324 -3.32246 6.085 
7.364 -3.33721 5.205 
7.364 -3.33721 -18.845 
7.36503 -3.36844 6.035 
6.8653 -3.38492 -4.765 
7.36709 -3.43091 -4.935 
6.86736 -3.44739 -16.075 
6.86839 -3.47862 8.665 
6.86839 -3.47862 -18.315 
6.86942 -3.50986 -2.675 
7.37018 -3.52461 -1.985 
7.37121 -3.55584 10.675 
7.37224 -3.58707 -13.305 
7.37327 -3.61831 11.465 
6.87354 -3.63479 0.664997 
6.87457 -3.66602 -10.735 
7.37533 -3.68077 0.515003 
6.8756 -3.69725 -15.455 
6.87766 -3.75972 2.685 
6.87766 -3.75972 3.425 
7.37945 -3.8057 -8.235 
7.38151 -3.86817 5.155 
6.88178 -3.88465 -12.815 
6.88281 -3.91588 6.055 
7.38254 -3.8994 -16.285 
7.3846 -3.96187 -18.575 
6.88487 -3.97835 8.875 
6.88487 -3.97835 -10.025 
6.8859 -4.00958 8.565 
6.88796 -4.07205 -7.465 
6.88899 -4.10328 -10.145 
7.38975 -4.11803 -8.405 
7.38975 -4.11803 10.675 
6.89002 -4.13452 11.465 
7.39078 -4.14927 -11.045 
6.89208 -4.19698 -13.365 
7.39284 -4.21173 -2.825 
7.39284 -4.21173 0.505001 
6.89311 -4.22821 -5.455 
6.89517 -4.29068 -2.065 
6.8962 -4.32191 -4.715 
7.39696 -4.33667 -19.105 
6.89723 -4.35315 -17.915 
7.39902 -4.39913 -18.015 
6.89929 -4.41561 6.035 
7.40005 -4.43037 2.525 
7.40005 -4.43037 5.595 
6.90238 -4.50931 -15.555 
6.90341 -4.54054 8.745 
7.40417 -4.5553 -5.665 
7.40417 -4.5553 8.475 
6.90547 -4.60301 0.685001 
7.4052 -4.58653 -13.655 
6.90547 -4.60301 -12.825 
7.40623 -4.61776 -0.0949974 
6.9065 -4.63424 3.485 
6.90753 -4.66548 11.415 
7.40829 -4.68023 11.225 
6.9096 -4.72794 5.395 
6.9096 -4.72794 -10.205 
7.41344 -4.83639 -8.325 
7.41344 -4.83639 7.875 
6.91371 -4.85288 -7.475 
6.91475 -4.88411 -18.265 
6.91784 -4.97781 8.695 
6.91784 -4.97781 -15.365 
6.91784 -4.97781 -4.755 
6.91887 -5.00904 -16.095 
7.41962 -5.02379 -15.435 
7.41962 -5.02379 5.225 
7.42065 -5.05503 -18.945 
7.42168 -5.08626 -2.845 
6.92196 -5.10274 6.065 
6.92196 -5.10274 -1.925 
7.42271 -5.11749 -2.065 
6.92299 -5.13397 -12.805 
7.42374 -5.14872 -13.115 
6.92608 -5.22767 0.634998 
6.92711 -5.2589 -10.285 
6.92814 -5.29014 -18.185 
7.42786 -5.27366 10.645 
6.9302 -5.3526 2.685 
6.9302 -5.3526 11.435 
6.9302 -5.3526 -7.425 
7.42992 -5.33612 -8.415 
7.42992 -5.33612 3.385 
7.43095 -5.36736 -16.405 
7.43198 -5.39859 -7.595 
7.43301 -5.42982 -15.615 
7.43404 -5.46105 5.355 
6.93535 -5.50877 -4.775 
6.93741 -5.57123 8.045 
6.93844 -5.60247 8.785 
6.93844 -5.60247 -2.045 
6.94256 -5.7274 -0.0850029 
7.44332 -5.74215 11.255 
6.94359 -5.75863 0.674999 
7.44537 -5.80462 -2.185 
7.4464 -5.83585 2.545 
6.94771 -5.88356 -4.665 
6.95183 -6.0085 3.365 
6.95183 -6.0085 -2.115 
6.95492 -6.1022 8.785 
7.45465 -6.08572 7.895 
7.45465 -6.08572 -0.105 
6.95698 -6.16466 6.045 
6.95904 -6.22713 11.555 
6.96007 -6.25836 0.695004 
7.46083 -6.27311 -2.155 
7.46083 -6.27311 3.195 
6.96213 -6.32083 8.715 
7.46186 -6.30435 -4.705 
6.96316 -6.35206 5.475 
7.46495 -6.39805 6.135 
7.46804 -6.49174 7.875 
6.98067 -6.88302 8.345 
6.9817 -6.91425 8.875 
6.98273 -6.94549 9.615 
6.99303 -7.25782 8.555 
6.50772 -7.71156 12.125 
7.72658 -14.3312 -12.955 
7.72658 -14.3312 0.554996 
7.22994 -14.4414 3.305 
7.7307 -14.4562 -10.295 
7.23097 -14.4726 8.655 
7.73173 -14.4874 3.315 
7.23406 -14.5663 5.915 
7.73379 -14.5499 -8.525 
6.73433 -14.5828 -4.745 
7.73379 -14.5499 4.715 
6.73433 -14.5828 8.635 
7.73482 -14.5811 8.695 
7.23509 -14.5976 -18.365 
7.73482 -14.5811 -7.515 
8.23558 -14.5958 5.685 
7.73688 -14.6436 -18.365 
7.73688 -14.6436 7.985 
7.23715 -14.66 -4.825 
8.23661 -14.6271 6.745 
8.23661 -14.6271 -6.385 
6.73845 -14.7078 10.635 
7.23921 -14.7225 10.415 
7.73894 -14.706 -15.695 
7.24024 -14.7537 -2.235 
7.741 -14.7685 10.375 
7.74203 -14.7997 -2.595 
6.74257 -14.8327 0.355 
6.74566 -14.9264 2.885 
7.74512 -14.8934 0.395 
7.24745 -14.9724 -10.475 
7.24745 -14.9724 2.625 
7.24848 -15.0036 3.285 
7.75027 -15.0496 3.025 
8.25206 -15.0956 -8.085 
7.75645 -15.237 -5.075 
7.47025 8.61028 -19.465 
8.47177 8.58078 0.285 
7.97307 8.53307 3.465 
8.4728 8.54955 -9.625 
7.97307 8.53307 9.445 
8.97253 8.56603 6.725 
7.47334 8.51659 4.915 
7.47437 8.48535 -5.245 
7.9741 8.50183 -7.145 
8.47383 8.51831 -8.615 
7.47437 8.48535 5.185 
7.9741 8.50183 -17.665 
7.9741 8.50183 3.315 
7.9741 8.50183 9.205 
8.47383 8.51831 2.025 
7.47437 8.48535 -16.985 
7.9741 8.50183 -6.945 
7.9741 8.50183 -5.915 
8.47383 8.51831 3.005 
8.47383 8.51831 -19.035 
8.47486 8.48708 2.605 
7.97513 8.4706 10.015 
7.4754 8.45412 11.645 
8.47486 8.48708 8.605 
7.97513 8.4706 4.675 
8.47486 8.48708 9.685 
8.47589 8.45585 -19.365 
7.97616 8.43937 -17.175 
8.97562 8.47233 -8.115 
7.47643 8.42289 -15.265 
7.97616 8.43937 11.125 
7.47643 8.42289 6.225 
7.47643 8.42289 -3.955 
7.47643 8.42289 -15.095 
8.47589 8.45585 -6.685 
7.47643 8.42289 -3.215 
8.47589 8.45585 9.395 
7.97616 8.43937 -4.685 
7.97616 8.43937 -5.775 
8.47589 8.45585 9.675 
7.47643 8.42289 12.645 
7.97616 8.43937 -16.195 
8.47589 8.45585 -17.665 
7.47746 8.39165 13.785 
8.47692 8.42461 10.795 
8.47692 8.42461 4.465 
7.47746 8.39165 7.025 
7.97719 8.40813 -4.165 
7.97719 8.40813 6.175 
8.47692 8.42461 3.895 
7.47849 8.36042 7.935 
8.47795 8.39338 10.405 
8.97768 8.40986 -6.875 
7.97822 8.3769 13.345 
7.97822 8.3769 -14.945 
7.47849 8.36042 -2.725 
8.47795 8.39338 5.675 
8.47795 8.39338 -17.735 
7.47849 8.36042 -13.655 
7.47849 8.36042 8.765 
8.47795 8.39338 11.625 
7.97822 8.3769 -15.565 
7.97822 8.3769 -14.605 
7.97925 8.34567 -3.275 
8.47898 8.36215 -16.225 
7.97925 8.34567 6.835 
7.48055 8.29795 9.415 
7.98028 8.31444 7.685 
8.73015 -14.4232 -13.295 
9.22988 -14.4067 -14.325 
8.23146 -14.4709 -10.725 
8.23146 -14.4709 2.525 
8.73118 -14.4544 -12.585 
8.73118 -14.4544 9.895 
8.73118 -14.4544 8.935 
9.23091 -14.438 -0.00500107 
9.23194 -14.4692 -14.215 
9.73167 -14.4527 7.475 
9.23194 -14.4692 8.595 
8.23249 -14.5021 -10.785 
9.23297 -14.5004 1.165 
8.73324 -14.5169 -10.545 
9.23297 -14.5004 -12.885 
8.73324 -14.5169 2.745 
8.73324 -14.5169 2.235 
8.23455 -14.5646 -8.805 
9.73373 -14.5152 8.445 
8.73427 -14.5481 -10.905 
8.73427 -14.5481 -9.815 
8.23455 -14.5646 4.455 
9.23503 -14.5629 10.115 
8.23558 -14.5958 -8.045 
8.7353 -14.5794 -9.025 
9.23503 -14.5629 2.285 
9.23606 -14.5941 -11.265 
8.73633 -14.6106 3.765 
9.73579 -14.5776 1.695 
8.73633 -14.6106 -9.415 
8.23661 -14.6271 5.655 
8.73633 -14.6106 4.715 
8.73737 -14.6418 4.995 
8.23764 -14.6583 -7.175 
8.73737 -14.6418 -8.205 
9.23709 -14.6254 -9.945 
8.73737 -14.6418 -7.855 
9.23812 -14.6566 -8.675 
9.23812 -14.6566 3.885 
8.2397 -14.7208 7.045 
8.24073 -14.752 -4.665 
10.2338 15.8303 -2.875 
10.2358 15.7678 -1.765 
10.2358 15.7678 -12.555 
10.2379 15.7054 -11.275 
10.2389 15.6741 8.585 
10.24 15.6429 -4.565 
10.242 15.5804 2.475 
10.243 15.5492 -5.095 
10.2441 15.518 3.435 
10.2441 15.518 -18.945 
10.2441 15.518 3.995 
10.2451 15.4867 -4.165 
10.2451 15.4867 -6.625 
10.2461 15.4555 -18.105 
10.2461 15.4555 -5.895 
10.2472 15.4243 -17.295 
10.2492 15.3618 6.815 
10.2503 15.3306 1.945 
10.2523 15.2681 0.515003 
10.2533 15.2369 5.095 
10.2533 15.2369 7.545 
10.2544 15.2056 -0.295002 
10.2564 15.1432 9.045 
10.2575 15.1119 12.875 
10.2575 15.1119 1.535 
10.2585 15.0807 2.135 
10.2606 15.0182 6.315 
10.2647 14.8933 11.905 
10.2647 14.8933 -18.025 
10.2667 14.8308 7.315 
10.2688 14.7684 8.665 
10.2719 14.6747 11.365 
10.276 14.5497 13.425 
10.2822 14.3623 5.955 
10.2873 14.2062 -18.595 
10.2894 14.1437 11.315 
10.2915 14.0812 -10.425 
10.2935 14.0188 13.635 
10.2997 13.8314 -18.405 
9.79996 13.8149 6.075 
10.3048 13.6752 8.605 
9.8082 13.565 11.345 
10.311 13.4878 -4.965 
9.81129 13.4713 -2.155 
9.81542 13.3464 3.275 
10.3162 13.3317 0.545002 
10.3182 13.2692 -15.625 
10.3193 13.238 2.275 
10.3224 13.1443 7.525 
10.3224 13.1443 8.635 
10.3234 13.113 -13.035 
10.3234 13.113 -2.185 
10.3244 13.0818 5.905 
10.3265 13.0193 12.905 
10.3265 13.0193 -0.575001 
10.3275 12.9881 13.745 
10.3275 12.9881 11.315 
10.3285 12.9569 0.554996 
10.3285 12.9569 3.235 
10.3316 12.8632 -7.515 
10.3316 12.8632 -20.575 
10.3337 12.8007 4.605 
10.3347 12.7695 12.635 
10.3368 12.707 9.965 
10.3399 12.6133 -14.935 
10.3409 12.5821 -0.994999 
10.3419 12.5508 -0.435001 
10.344 12.4884 0.454998 
10.344 12.4884 11.415 
10.346 12.4259 12.415 
10.3481 12.3634 -9.385 
10.3491 12.3322 4.285 
10.3512 12.2697 -7.895 
10.3512 12.2697 5.645 
10.3522 12.2385 -17.615 
10.3533 12.2073 6.925 
10.3553 12.1448 -5.195 
10.3563 12.1136 -4.095 
10.3594 12.0199 11.005 
10.3594 12.0199 -2.415 
10.3615 11.9574 12.325 
10.3646 11.8637 1.915 
10.3677 11.77 3.385 
10.3697 11.7075 4.725 
10.3749 11.5514 8.675 
10.3769 11.4889 9.975 
9.87825 11.4412 11.345 
10.3831 11.3015 -5.035 
10.3872 11.1766 5.945 
10.3924 11.0204 -10.465 
10.3945 10.9579 0.384998 
9.89473 10.9415 11.345 
10.3986 10.833 13.575 
10.4017 10.7393 8.605 
10.4068 10.5832 5.935 
10.4089 10.5207 0.535 
10.413 10.3958 -7.595 
10.4202 10.1771 -2.195 
10.4212 10.1459 8.495 
10.4243 10.0522 0.524998 
10.4284 9.92726 3.235 
10.4284 9.92726 -10.295 
10.4295 9.89602 14.075 
10.4326 9.80233 -7.575 
10.4336 9.77109 5.925 
10.4367 9.67739 8.615 
10.4387 9.61493 -3.865 
10.4398 9.58369 10.535 
10.4398 9.58369 -3.265 
10.4408 9.55246 11.325 
10.4418 9.52123 12.045 
10.4429 9.49 -17.485 
10.4449 9.42753 -16.435 
10.446 9.3963 -15.505 
10.448 9.33383 -7.005 
10.448 9.33383 2.235 
10.449 9.3026 2.855 
10.4501 9.27136 3.405 
10.4501 9.27136 -5.815 
10.4511 9.24013 -11.955 
10.4532 9.17766 -10.865 
10.4542 9.14643 6.785 
10.4542 9.14643 -16.095 
10.4552 9.1152 -15.765 
10.4563 9.08397 -15.145 
10.4563 9.08397 8.155 
10.4573 9.05273 -4.525 
10.4573 9.05273 -14.215 
10.4583 9.0215 -0.155003 
9.45989 8.9573 13.725 
10.4604 8.95903 0.914997 
10.4624 8.89657 -8.545 
10.4666 8.77164 -18.335 
10.4666 8.77164 -18.045 
10.4676 8.7404 2.045 
10.4676 8.7404 -7.595 
10.4676 8.7404 -17.485 
10.4676 8.7404 6.285 
10.4686 8.70917 -3.285 
10.4686 8.70917 6.805 
8.9715 8.59726 -11.255 
9.47122 8.61374 -12.215 
9.47122 8.61374 3.005 
9.47122 8.61374 11.855 
10.4707 8.6467 1.215 
9.47122 8.61374 4.275 
10.4717 8.61547 -14.595 
8.97253 8.56603 -0.255001 
9.47225 8.58251 -1.155 
9.97198 8.59899 2.785 
9.47225 8.58251 11.325 
10.4717 8.61547 1.765 
9.47225 8.58251 -12.475 
9.97198 8.59899 -13.295 
9.47225 8.58251 -2.015 
9.97198 8.59899 -3.605 
8.97356 8.53479 -10.125 
9.47328 8.55128 -11.055 
9.47328 8.55128 -12.045 
8.97356 8.53479 0.475002 
9.97301 8.56776 10.825 
10.4727 8.58424 -13.765 
9.97301 8.56776 4.325 
10.4727 8.58424 10.135 
8.97356 8.53479 6.305 
9.47431 8.52004 12.325 
9.47431 8.52004 5.545 
8.97459 8.50356 -9.595 
9.47431 8.52004 -1.155 
9.97404 8.53652 4.055 
10.4738 8.553 2.965 
8.97459 8.50356 1.645 
9.47431 8.52004 0.0949974 
8.97562 8.47233 7.175 
9.97507 8.50529 -2.185 
9.47534 8.48881 13.745 
10.4748 8.52177 -13.015 
8.97562 8.47233 -9.055 
9.47534 8.48881 -9.955 
9.97507 8.50529 -11.945 
9.47534 8.48881 13.155 
9.47534 8.48881 -0.405003 
9.97507 8.50529 -11.205 
9.97507 8.50529 4.685 
9.47534 8.48881 6.715 
9.47534 8.48881 0.945004 
10.4758 8.49054 -12.235 
10.4758 8.49054 -2.035 
9.9761 8.47406 11.945 
9.9761 8.47406 5.935 
8.97665 8.4411 8.385 
9.9761 8.47406 -10.225 
9.47637 8.45758 -8.745 
8.97665 8.4411 -19.385 
9.47637 8.45758 7.945 
9.47637 8.45758 -20.125 
9.9761 8.47406 5.295 
9.47637 8.45758 1.375 
9.9761 8.47406 0.344997 
10.4769 8.4593 -11.725 
9.97713 8.44282 -0.494999 
9.4774 8.42634 -19.815 
8.97768 8.40986 9.555 
9.97713 8.44282 13.235 
9.97713 8.44282 -9.585 
9.97713 8.44282 -10.435 
9.47843 8.39511 -8.195 
8.97871 8.37863 3.525 
9.97816 8.41159 1.205 
9.47843 8.39511 2.495 
9.97919 8.38036 7.535 
8.97974 8.3474 10.375 
9.47946 8.36388 8.715 
9.98022 8.34913 -9.195 
11.1103 -10.749 -12.875 
11.1114 -10.7802 3.445 
11.1186 -10.9989 8.665 
11.132 -11.4049 5.945 
11.1371 -11.5611 8.515 
10.658 -12.2022 8.655 
11.1618 -12.3107 3.255 
11.167 -12.4668 -15.675 
10.6745 -12.7019 0.554996 
11.1783 -12.8104 3.245 
10.6817 -12.9206 5.975 
11.1866 -13.0602 8.605 
11.1907 -13.1852 0.615002 
11.1948 -13.3101 3.225 
10.6982 -13.4203 5.925 
11.1989 -13.435 -12.865 
11.2 -13.4663 -4.555 
11.203 -13.56 8.565 
11.203 -13.56 -2.245 
11.2041 -13.5912 -15.565 
11.2051 -13.6224 9.675 
10.7064 -13.6702 -13.155 
11.2082 -13.7161 -6.505 
11.2103 -13.7786 -7.795 
11.2144 -13.9035 1.455 
11.2164 -13.966 -15.195 
11.2195 -14.0597 8.245 
11.2236 -14.1846 -2.345 
11.2257 -14.2471 2.005 
11.2267 -14.2783 -8.905 
10.2283 -14.3425 9.805 
11.2278 -14.3096 1.115 
10.7291 -14.3573 8.965 
9.72961 -14.3902 -15.965 
10.7291 -14.3573 8.535 
10.2304 -14.405 -17.665 
10.7301 -14.3885 8.765 
10.7301 -14.3885 -5.995 
10.7301 -14.3885 -18.465 
10.7301 -14.3885 -4.735 
9.73064 -14.4215 -15.265 
10.2314 -14.4362 -2.865 
9.73167 -14.4527 6.195 
10.2314 -14.4362 -16.995 
10.2314 -14.4362 -2.645 
11.2309 -14.4033 2.855 
11.2309 -14.4033 -18.635 
10.7311 -14.4197 -17.615 
11.2319 -14.4345 9.265 
10.2324 -14.4675 5.825 
11.2319 -14.4345 -18.455 
10.2324 -14.4675 4.805 
10.2324 -14.4675 -2.035 
10.7322 -14.451 -3.225 
9.7327 -14.4839 -14.255 
10.2324 -14.4675 -15.725 
9.7327 -14.4839 7.125 
11.2319 -14.4345 6.205 
10.2335 -14.4987 -1.125 
11.2329 -14.4657 -4.445 
10.7332 -14.4822 5.535 
10.2335 -14.4987 -2.365 
11.2329 -14.4657 -17.495 
9.73373 -14.5152 -0.395 
9.73373 -14.5152 7.925 
10.2335 -14.4987 6.925 
10.7342 -14.5134 -16.245 
11.2339 -14.497 4.705 
10.7342 -14.5134 -1.775 
9.73476 -14.5464 8.385 
9.73476 -14.5464 0.484997 
11.235 -14.5282 -3.165 
10.2355 -14.5612 -14.285 
10.7352 -14.5447 -15.675 
11.235 -14.5282 -16.715 
9.73579 -14.5776 -12.775 
10.7352 -14.5447 -1.995 
11.235 -14.5282 -16.375 
10.2355 -14.5612 8.115 
10.7352 -14.5447 -0.924999 
10.7352 -14.5447 7.145 
10.2355 -14.5612 -0.045002 
11.235 -14.5282 -2.785 
9.73579 -14.5776 9.995 
10.7363 -14.5759 -0.765003 
10.7363 -14.5759 -14.995 
10.2366 -14.5924 0.134998 
10.2366 -14.5924 9.325 
10.7363 -14.5759 -1.355 
9.73682 -14.6089 1.495 
10.7363 -14.5759 -13.815 
9.73785 -14.6401 2.905 
10.2376 -14.6236 -11.295 
9.73888 -14.6713 -9.865 
10.242 15.5804 10.145 
10.243 15.5492 -3.115 
10.2492 15.3618 -16.295 
10.2503 15.3306 -3.655 
10.2513 15.2993 -14.955 
10.2513 15.2993 2.915 
10.2554 15.1744 5.335 
10.2575 15.1119 12.155 
10.2636 14.9245 10.465 
10.2832 14.3311 5.745 
10.2873 14.2062 8.465 
10.2987 13.8626 -13.155 
10.3018 13.7689 5.865 
10.3038 13.7065 -16.245 
10.3079 13.5815 -7.575 
10.3079 13.5815 0.115002 
10.309 13.5503 11.125 
10.3121 13.4566 -2.365 
10.3121 13.4566 3.005 
10.3151 13.3629 -18.475 
10.3182 13.2692 -16.655 
10.3203 13.2067 -15.735 
10.3234 13.113 5.855 
10.3244 13.0818 11.045 
10.3265 13.0193 -11.045 
10.3275 12.9881 -10.235 
10.3306 12.8944 1.915 
10.3347 12.7695 -19.215 
10.3347 12.7695 -5.155 
10.3357 12.7382 -18.105 
10.3378 12.6758 -3.485 
10.3388 12.6445 7.265 
10.3399 12.6133 8.085 
10.3419 12.5508 -1.795 
10.3419 12.5508 9.165 
10.343 12.5196 -13.215 
10.345 12.4571 1.015 
10.345 12.4571 -11.955 
10.346 12.4259 1.745 
10.3481 12.3634 13.585 
10.3481 12.3634 3.025 
10.3502 12.301 4.055 
10.3512 12.2697 -18.835 
10.3533 12.2073 -6.735 
10.3553 12.1448 -15.985 
10.3563 12.1136 8.435 
10.3574 12.0823 -14.595 
10.3594 12.0199 -13.375 
10.3615 11.9574 -1.075 
10.3636 11.8949 0.215 
10.3636 11.8949 13.845 
10.3646 11.8637 -18.615 
10.3718 11.6451 5.855 
10.38 11.3952 11.345 
10.3883 11.1453 5.925 
10.3955 10.9267 10.835 
10.412 10.427 14.045 
10.4161 10.3021 11.285 
10.4171 10.2708 -5.065 
10.4171 10.2708 -18.555 
10.4181 10.2396 13.605 
10.4223 10.1147 -2.375 
10.4243 10.0522 10.555 
10.4254 10.021 -14.145 
10.4254 10.021 -13.085 
10.4295 9.89602 3.085 
10.4305 9.86479 -10.525 
10.4377 9.64616 -4.855 
10.4387 9.61493 -14.205 
10.4418 9.52123 -2.135 
10.4418 9.52123 -11.445 
10.4449 9.42753 13.255 
10.4449 9.42753 -12.985 
10.446 9.3963 -19.325 
10.447 9.36506 0.594997 
10.449 9.3026 -20.115 
10.4501 9.27136 -9.625 
10.4511 9.24013 4.215 
10.4511 9.24013 -5.115 
10.4521 9.2089 -18.085 
10.4532 9.17766 5.215 
10.4563 9.08397 7.015 
10.4583 9.0215 -13.495 
10.4594 8.99027 9.875 
10.4614 8.9278 11.015 
10.4624 8.89657 11.625 
10.4645 8.8341 3.415 
10.4676 8.7404 -1.785 
10.4697 8.67794 -6.575 
10.4697 8.67794 -16.375 
10.4707 8.6467 7.815 
10.4717 8.61547 -5.465 
10.4717 8.61547 -15.435 
10.4727 8.58424 9.085 
10.4758 8.49054 3.985 
10.995 -7.2509 7.065 
11.9975 -7.31164 -2.095 
11.9975 -7.31164 -18.335 
11.9975 -7.31164 -10.285 
12.0006 -7.40534 8.695 
12.0027 -7.46781 6.035 
12.0047 -7.53027 -12.945 
12.0047 -7.53027 3.295 
12.0078 -7.62397 0.645 
12.0078 -7.62397 -10.055 
12.0089 -7.6552 -10.955 
12.0089 -7.6552 5.345 
12.0109 -7.71767 -4.915 
12.013 -7.78014 -7.485 
12.014 -7.81137 8.645 
12.014 -7.81137 -18.285 
12.014 -7.81137 -18.965 
12.0171 -7.90507 2.795 
12.0181 -7.9363 -2.075 
12.0181 -7.9363 -15.595 
12.0212 -8.03 6.015 
12.0233 -8.09247 -12.945 
12.0243 -8.1237 0.115002 
12.0253 -8.15493 3.345 
12.0253 -8.15493 0.695004 
12.0274 -8.2174 -10.185 
12.0284 -8.24863 2.615 
12.0315 -8.34233 -7.585 
12.0325 -8.37356 -18.995 
12.0346 -8.43603 -5.415 
12.0346 -8.43603 -4.765 
12.0367 -8.4985 8.195 
12.0377 -8.52973 8.725 
12.0387 -8.56096 -2.125 
12.0408 -8.62343 -12.925 
12.0428 -8.68589 0.045002 
12.0439 -8.71713 -18.335 
12.0439 -8.71713 0.725002 
12.049 -8.87329 -7.605 
12.049 -8.87329 -10.215 
12.0511 -8.93576 5.975 
12.0521 -8.96699 -4.755 
12.0531 -8.99822 -16.215 
12.0562 -9.09192 -2.125 
12.0583 -9.15439 -15.595 
12.0604 -9.21686 -0.0649986 
12.0645 -9.34179 0.704998 
12.0655 -9.37302 -10.315 
12.0655 -9.37302 -18.985 
12.0676 -9.43549 -7.485 
12.0696 -9.49795 -4.845 
12.0696 -9.49795 3.315 
12.0768 -9.71658 3.505 
12.0768 -9.71658 8.645 
12.0789 -9.77905 -2.135 
12.081 -9.84152 6.005 
12.082 -9.87275 -7.555 
12.084 -9.93521 -18.975 
12.0851 -9.96645 2.575 
12.0851 -9.96645 -18.265 
12.0861 -9.99768 -5.435 
12.0861 -9.99768 -4.745 
12.0923 -10.1851 -12.925 
12.0923 -10.1851 3.335 
12.0923 -10.1851 8.105 
12.0933 -10.2163 8.755 
12.0933 -10.2163 0.0150032 
12.0954 -10.2788 0.725002 
12.0964 -10.31 -10.185 
12.1005 -10.4349 -7.615 
12.1026 -10.4974 5.955 
12.1036 -10.5286 -4.765 
11.607 -10.6388 -2.095 
11.607 -10.6388 -12.915 
11.608 -10.6701 -15.615 
11.609 -10.7013 0.695004 
11.609 -10.7013 -18.295 
12.1088 -10.6848 -18.335 
11.6101 -10.7325 -10.225 
12.1098 -10.716 -15.695 
11.6121 -10.795 -10.255 
12.1119 -10.7785 -0.0549965 
12.1119 -10.7785 0.674999 
11.1134 -10.8427 3.275 
12.1139 -10.841 -10.245 
11.6152 -10.8887 -7.665 
12.1149 -10.8722 -12.875 
11.6152 -10.8887 -18.305 
12.116 -10.9034 -8.135 
11.1165 -10.9364 6.015 
12.116 -10.9034 -16.255 
12.116 -10.9034 3.245 
12.116 -10.9034 -13.565 
11.6173 -10.9512 5.525 
12.117 -10.9347 -7.425 
12.117 -10.9347 -15.565 
12.117 -10.9347 -7.985 
11.6173 -10.9512 -13.435 
11.6183 -10.9824 -5.605 
12.118 -10.9659 5.285 
11.6183 -10.9824 -18.985 
12.1191 -10.9971 6.095 
11.6193 -11.0136 -4.875 
11.6204 -11.0449 -19.125 
12.1201 -11.0284 -5.285 
12.1211 -11.0596 7.265 
11.6214 -11.0761 8.455 
12.1222 -11.0908 -19.185 
11.6235 -11.1385 -2.525 
12.1263 -11.2158 -1.935 
11.1299 -11.3424 3.875 
11.6307 -11.3572 3.095 
11.6317 -11.3884 -18.545 
11.133 -11.4361 5.615 
11.6338 -11.4509 -10.485 
11.6348 -11.4821 -1.985 
11.6348 -11.4821 -16.695 
11.6358 -11.5133 -1.285 
11.1361 -11.5298 -10.695 
11.6358 -11.5133 -15.815 
11.1371 -11.5611 -13.255 
11.6379 -11.5758 0.285 
11.1402 -11.6548 3.075 
11.6399 -11.6383 -7.805 
12.1407 -11.653 -13.205 
11.641 -11.6695 -5.085 
11.643 -11.732 8.365 
11.643 -11.732 5.655 
11.6472 -11.8569 0.0249977 
11.6472 -11.8569 -7.675 
11.6482 -11.8881 -18.655 
12.15 -11.9341 -18.675 
11.6502 -11.9506 -2.335 
11.6513 -11.9818 -16.825 
11.6523 -12.0131 3.045 
11.6523 -12.0131 -15.785 
11.1526 -12.0296 5.905 
12.1531 -12.0278 -5.065 
11.6564 -12.138 -13.085 
11.1577 -12.1857 8.575 
12.1572 -12.1528 -13.265 
11.1588 -12.217 0.395 
11.6595 -12.2317 0.265003 
11.6595 -12.2317 -10.435 
12.1613 -12.2777 0.325001 
11.6647 -12.3879 -7.765 
11.6657 -12.4191 -18.635 
11.6667 -12.4503 -16.855 
11.6667 -12.4503 5.425 
11.6678 -12.4816 8.375 
11.6688 -12.5128 -15.795 
11.6688 -12.5128 -5.165 
11.6688 -12.5128 -16.525 
12.1685 -12.4963 5.695 
11.6698 -12.544 -15.835 
12.1695 -12.5276 -5.115 
11.1711 -12.5918 -13.125 
11.6719 -12.6065 -2.085 
11.6729 -12.6377 -2.415 
11.6729 -12.6377 -13.175 
12.1747 -12.6837 -13.275 
11.1752 -12.7167 0.524998 
11.677 -12.7627 0.244999 
11.677 -12.7627 -10.615 
11.1794 -12.8416 -7.635 
11.6801 -12.8564 3.005 
11.6811 -12.8876 -7.695 
12.1819 -12.9024 -7.835 
11.1835 -12.9665 5.825 
11.6853 -13.0125 5.655 
11.6853 -13.0125 -5.075 
11.6863 -13.0438 -16.355 
11.1876 -13.0915 8.455 
11.6884 -13.1062 -2.175 
11.6894 -13.1375 8.385 
11.6894 -13.1375 -15.745 
11.6904 -13.1687 -2.475 
11.6914 -13.1999 0.174999 
11.6925 -13.2312 -18.635 
11.1938 -13.2789 -13.145 
11.6945 -13.2936 -16.845 
11.1969 -13.3726 -18.435 
11.6976 -13.3873 3.035 
11.6987 -13.4186 -10.595 
11.1989 -13.435 5.555 
11.7007 -13.481 -13.285 
11.7007 -13.481 5.675 
11.7017 -13.5123 -5.055 
11.7017 -13.5123 -7.825 
11.2041 -13.5912 8.245 
11.2051 -13.6224 -16.155 
11.7059 -13.6372 -2.525 
11.7059 -13.6372 8.145 
11.2061 -13.6537 -1.295 
11.7059 -13.6372 -16.075 
11.2072 -13.6849 10.775 
11.2072 -13.6849 -8.055 
11.2072 -13.6849 -13.795 
11.2082 -13.7161 -0.155003 
11.2082 -13.7161 -3.045 
11.2082 -13.7161 -13.035 
11.2103 -13.7786 -11.975 
11.2103 -13.7786 -5.205 
11.2103 -13.7786 2.215 
11.2123 -13.8411 -4.135 
11.2123 -13.8411 3.235 
11.2133 -13.8723 -6.615 
11.2144 -13.9035 4.215 
11.2164 -13.966 -7.285 
11.2185 -14.0285 -13.985 
11.2195 -14.0597 -5.815 
11.2206 -14.0909 8.945 
11.2206 -14.0909 -12.905 
11.2216 -14.1222 9.625 
11.2226 -14.1534 10.275 
11.2236 -14.1846 3.435 
11.2257 -14.2471 -1.165 
11.2278 -14.3096 -8.315 
11.2278 -14.3096 -0.255001 
11.2288 -14.3408 -7.565 
11.2288 -14.3408 0.715 
11.2298 -14.372 -6.935 
11.2298 -14.372 7.905 
11.2309 -14.4033 -6.285 
-7.22479 14.2852 13.195 
-6.70961 13.8332 13.125 
-7.15887 12.2863 13.205 
-7.129 11.3806 13.085 
-6.55819 9.24198 13.145 
-6.39339 4.2447 13.155 
-6.70462 -1.48743 11.985 
-6.69843 -1.67483 11.195 
-6.68607 -2.04962 10.885 
-6.66856 -2.58058 10.835 
-6.16471 -2.68903 12.055 
-6.1369 -3.53233 10.825 
-6.61397 -4.23593 10.805 
-6.59749 -4.73566 10.805 
-6.58925 -4.98553 10.805 
-6.06171 -5.81234 10.815 
-6.53775 -6.54718 10.795 
-6.51715 -7.17184 10.795 
-6.49964 -7.7028 10.755 
-5.98549 -8.12358 10.795 
-5.96489 -8.74824 10.765 
-5.94737 -9.2792 10.775 
-6.43062 -9.79541 10.765 
-5.92368 -9.99756 10.785 
-6.39663 -10.8261 10.835 
-6.73639 14.6453 13.135 
-6.23254 14.5368 13.115 
-5.72148 14.2098 13.085 
-6.20679 13.756 13.105 
-5.70603 13.7413 13.065 
-6.68901 13.2086 13.115 
-5.68646 13.1478 13.075 
-6.67356 12.7401 13.165 
-6.1728 12.7253 13.075 
-6.17074 12.6629 13.095 
-6.65193 12.0842 13.115 
-5.65144 12.0859 13.065 
-6.15014 12.0382 13.115 
-6.62721 11.3346 13.135 
-6.12542 11.2886 13.115 
-5.62363 11.2426 13.085 
-6.60764 10.7412 13.175 
-6.10585 10.6952 13.085 
-6.58085 9.9291 13.145 
-6.05538 9.16476 13.105 
-6.54068 8.71102 13.145 
-6.03786 8.6338 13.135 
-6.02035 8.10284 13.135 
-6.5139 7.89896 13.105 
-6.00284 7.57188 13.115 
-6.4933 7.2743 13.135 
-5.48972 7.18233 13.095 
-6.47476 6.7121 13.125 
-6.45931 6.24361 13.105 
-5.45676 6.18287 13.105 
-6.44489 5.80635 13.165 
-6.43253 5.43155 13.135 
-6.41193 4.80689 13.105 
-5.26826 0.467229 10.895 
-5.76593 0.388282 10.515 
-5.75048 -0.0802134 10.515 
-5.73194 -0.642408 10.505 
-5.23118 -0.65716 10.855 
-5.70722 -1.392 12.015 
-6.19768 -1.68958 12.025 
-6.19665 -1.72081 11.095 
-6.18326 -2.12684 10.875 
-6.16471 -2.68903 10.925 
-6.16265 -2.7515 12.145 
-6.08643 -5.06274 10.835 
-6.0442 -6.3433 10.815 
-5.53211 -6.70161 10.855 
-5.51357 -7.26381 10.895 
-5.4734 -8.4819 10.805 
-4.96028 -8.87144 10.815 
-5.44456 -9.35642 10.785 
-4.94277 -9.40241 10.785 
-5.42705 -9.88738 10.775 
-5.90617 -10.5285 10.785 
-5.40335 -10.6057 10.795 
-4.72615 14.3677 13.575 
-5.22382 14.2887 13.605 
-5.20116 13.6016 13.605 
-4.7004 13.5868 13.555 
-5.18261 13.0394 13.875 
-5.18158 13.0082 13.655 
-5.16613 12.5397 13.705 
-4.66538 12.5249 13.545 
-4.15226 12.1354 13.545 
-5.15068 12.0712 13.635 
-4.63447 11.5879 13.555 
-5.11978 11.1342 13.575 
-4.11723 11.0734 13.535 
-5.10021 10.5407 13.885 
-4.59739 10.4635 13.545 
-5.08579 10.1035 13.625 
-5.07446 9.75992 13.835 
-4.57267 9.71393 13.545 
-5.06622 9.51005 14.045 
-5.06519 9.47882 13.555 
-5.04974 9.01032 13.645 
-4.04719 8.94959 13.535 
-5.03223 8.47936 13.585 
-4.02968 8.41862 13.535 
-4.51499 7.96488 13.605 
-4.49542 7.37145 13.555 
-4.46761 6.52816 13.555 
-4.95291 6.07442 13.665 
-3.91432 4.92053 19.975 
-4.90347 4.57523 20.015 
-3.90195 4.54573 19.785 
-4.3749 3.71719 19.735 
-3.87311 3.67121 19.725 
-4.86021 3.26345 20.095 
-4.35945 3.2487 19.755 
-4.35842 3.21746 19.725 
-4.84579 2.82619 20.015 
-4.344 2.7802 19.735 
-4.33473 2.4991 19.735 
-4.83343 2.45139 19.895 
-4.81283 1.82673 19.865 
-3.81131 1.79722 19.715 
-4.79429 1.26453 20.315 
-4.79326 1.2333 19.835 
-4.29147 1.18732 19.755 
-4.27808 0.781287 19.765 
-4.26469 0.375258 19.725 
-4.76029 0.233845 20.075 
-4.74072 -0.359582 19.925 
-3.73818 -0.420319 19.745 
-4.23379 -0.561732 19.775 
-3.72891 -0.701417 19.715 
-4.72836 -0.734378 20.175 
-4.71188 -1.23411 20.215 
-4.71188 -1.23411 19.765 
-4.21009 -1.28009 19.725 
-4.19567 -1.71735 19.725 
-3.68152 -2.13814 19.725 
-3.64238 -3.32499 19.695 
-4.11533 -4.15353 19.725 
-4.5924 -4.85714 20.315 
-4.09164 -4.87189 19.715 
-3.58985 -4.91787 19.725 
-4.57592 -5.35686 20.325 
-4.07516 -5.37162 19.755 
-4.56356 -5.73166 20.185 
-4.06177 -5.77765 19.725 
-4.54398 -6.32509 20.005 
-3.53732 -6.51076 19.705 
-4.52544 -6.88728 19.835 
-4.51411 -7.23085 20.195 
-4.01232 -7.27683 19.755 
-4.49557 -7.79304 20.175 
-3.99378 -7.83903 19.785 
-3.97215 -8.49492 13.035 
-4.4657 -8.6988 13.035 
-4.9232 -9.99583 10.875 
-3.41886 -10.1026 10.815 
-4.40081 -10.6665 10.795 
-3.72257 14.2757 13.555 
-4.19655 13.4784 13.545 
-3.19297 13.3864 13.525 
-4.17801 12.9162 13.635 
-3.67519 12.839 13.555 
-3.17443 12.8242 13.515 
-3.65974 12.3705 13.535 
-3.15795 12.3245 13.505 
-3.63914 11.7458 13.525 
-3.13838 11.7311 13.505 
-3.11366 10.9815 13.485 
-3.59485 10.4028 13.515 
-3.59279 10.3403 13.505 
-3.57012 9.65319 13.505 
-3.06834 9.60721 13.525 
-3.54437 8.87237 13.525 
-3.04258 8.82638 13.495 
-3.52583 8.31017 13.495 
-3.50935 7.81045 13.495 
-4.00187 7.57533 13.515 
-2.99829 7.48336 13.495 
-3.49081 7.24825 13.485 
-3.98127 6.95067 13.515 
-2.97769 6.8587 13.495 
-3.96376 6.41971 13.515 
-2.96018 6.32774 13.515 
-3.44549 5.874 13.505 
-2.92001 5.10965 20.255 
-3.41047 4.81208 19.805 
-3.39296 4.28111 19.735 
-2.89014 4.2039 19.735 
-3.36926 3.56275 19.735 
-3.35484 3.12549 19.715 
-2.85203 3.04827 19.695 
-3.83397 2.48435 19.755 
-3.33115 2.40713 19.705 
-2.82833 2.32991 19.705 
-3.30746 1.68877 19.685 
-3.28892 1.12658 19.715 
-2.78507 1.01813 19.695 
-3.27347 0.658084 19.705 
-2.75829 0.206069 19.705 
-3.75466 0.0794088 19.715 
-2.74593 -0.168727 19.665 
-3.23536 -0.497538 19.705 
-3.22609 -0.778635 19.715 
-3.70831 -1.32608 19.735 
-3.20549 -1.4033 19.695 
-2.7037 -1.44928 19.715 
-2.68928 -1.88654 19.685 
-3.18695 -1.96549 19.715 
-3.17871 -2.21535 19.715 
-3.65886 -2.82526 19.725 
-2.65632 -2.886 19.695 
-2.65426 -2.94847 19.715 
-3.13956 -3.40221 19.705 
-3.12205 -3.93317 19.685 
-2.60893 -4.32272 19.685 
-3.60118 -4.57431 19.685 
-3.08703 -4.99509 19.655 
-2.58627 -5.00984 19.675 
-3.06952 -5.52605 19.665 
-3.56513 -5.66747 19.675 
-3.05613 -5.93208 19.675 
-2.54198 -6.35286 19.685 
-3.03759 -6.49428 19.685 
-3.51775 -7.10419 19.695 
-2.51005 -7.32109 19.705 
-3.00875 -7.3688 19.715 
-3.492 -7.88501 19.785 
-2.48842 -7.97698 19.955 
-2.9727 -8.46196 20.205 
-3.47139 -8.50967 13.055 
-2.9624 -8.77429 12.965 
-2.95107 -9.11785 11.125 
-2.44825 -9.19507 11.315 
-2.93355 -9.64881 10.905 
-2.93252 -9.68005 11.575 
-2.43074 -9.72603 11.335 
-3.4065 -10.4774 10.775 
-2.2409 14.8561 13.645 
-1.73911 14.8101 13.595 
-2.71899 14.1837 13.545 
-2.21721 14.1377 13.555 
-2.70663 13.8089 13.545 
-1.70306 13.7169 13.555 
-2.19042 13.3257 13.545 
-2.67161 12.747 13.535 
-2.16879 12.6698 13.535 
-2.65513 12.2473 13.505 
-2.63453 11.6226 13.505 
-2.60981 10.873 13.505 
-1.60623 10.781 13.475 
-2.59127 10.3108 13.515 
-2.08845 10.2336 13.495 
-2.56552 9.52999 13.495 
-2.06373 9.484 13.475 
-2.5408 8.7804 13.505 
-2.03798 8.70318 13.485 
-2.0215 8.20345 13.485 
-1.99472 7.39139 13.475 
-1.97411 6.76673 13.465 
-2.45942 6.31299 13.505 
-1.9566 6.23577 13.495 
-2.44397 5.84449 13.525 
-2.41822 5.06367 20.405 
-1.91643 5.01768 20.085 
-2.90765 4.73486 19.795 
-1.9051 4.67412 19.745 
-1.88965 4.20562 19.715 
-1.37859 3.87854 19.705 
-2.36569 3.47078 19.705 
-1.36314 3.41005 19.685 
-1.84845 2.9563 19.705 
-1.83403 2.51904 19.705 
-1.324 2.22319 19.685 
-2.32243 2.159 19.685 
-2.30491 1.62804 19.705 
-1.80107 1.51958 19.685 
-1.78253 0.95739 19.695 
-2.26989 0.566113 19.705 
-1.76811 0.520128 19.685 
-1.75368 0.0828659 19.685 
-2.23178 -0.589508 19.715 
-1.72381 -0.822892 19.715 
-2.22148 -0.901838 19.695 
-1.21378 -1.11874 19.685 
-1.70115 -1.51002 19.685 
-1.6857 -1.97851 19.695 
-2.67589 -2.29257 19.715 
-1.17155 -2.39929 19.715 
-2.17101 -2.43226 19.705 
-2.15247 -2.99445 19.685 
-1.14992 -3.05519 19.695 
-2.13599 -3.49418 19.685 
-1.63317 -3.5714 19.655 
-2.11642 -4.08761 19.695 
-1.60433 -4.44592 19.715 
-2.09066 -4.86843 19.715 
-1.58167 -5.13305 19.675 
-1.07988 -5.17903 19.845 
-2.06491 -5.64926 19.655 
-1.55282 -6.00757 19.655 
-1.03662 -6.49082 19.665 
-2.02989 -6.71118 19.685 
-1.51059 -7.28813 19.685 
-2.00414 -7.49201 19.725 
-1.50132 -7.56922 19.675 
-1.9856 -8.0542 20.115 
-0.961422 -8.77083 10.775 
-1.94749 -9.20982 10.785 
-1.44467 -9.28704 10.755 
-1.92998 -9.74078 10.735 
-1.42819 -9.78677 10.725 
-0.926401 -9.83275 10.715 
-1.38699 -11.0361 10.885 
-1.23732 14.7641 13.575 
-0.733472 14.6557 13.575 
-0.715961 14.1247 13.535 
-1.21363 14.0458 13.535 
-0.69948 13.625 13.515 
-1.18685 13.2337 13.515 
-0.683 13.1252 13.575 
-1.16625 12.609 13.525 
-1.65052 12.1241 13.515 
-0.645918 12.0009 13.475 
-1.13844 11.7657 13.485 
-0.635617 11.6885 13.485 
-1.63198 11.5619 13.495 
-1.11989 11.2035 13.465 
-0.618106 11.1576 13.485 
-1.10341 10.7038 13.455 
-0.601626 10.6578 13.475 
-1.5846 10.1251 13.475 
-0.581025 10.0332 13.465 
-1.06839 9.6419 13.465 
-1.56091 9.40679 13.465 
-0.556304 9.28358 13.465 
-1.04779 9.01724 13.465 
-1.53516 8.62596 13.475 
-0.530552 8.50276 13.455 
-1.51765 8.095 13.445 
-0.515102 8.03426 13.465 
-0.514072 8.00303 13.465 
-1.4919 7.31417 13.465 
-0.48935 7.25344 13.475 
-0.970538 6.67476 13.485 
-0.466689 6.56631 13.495 
-1.41361 4.94046 19.895 
-0.410037 4.84849 19.765 
-0.904615 4.67585 19.745 
-0.886074 4.11365 19.695 
-0.372955 3.72411 19.675 
-1.36108 3.34758 19.675 
-0.859293 3.3016 19.685 
-0.844872 2.86433 19.705 
-0.342054 2.78711 19.665 
-0.829421 2.39584 19.675 
-0.820151 2.11474 19.675 
-1.31267 1.87963 19.705 
-1.29825 1.44237 19.695 
-0.294671 1.3504 19.675 
-0.778949 0.86542 19.675 
-0.2751 0.756969 19.705 
-1.26426 0.411677 19.675 
-0.761438 0.334459 19.675 
-1.24984 -0.0255854 19.685 
-0.247289 -0.0863229 19.685 
-0.721266 -0.883629 19.705 
-0.218448 -0.960847 19.715 
-0.710966 -1.19596 19.725 
-1.1973 -1.61847 19.705 
-0.193727 -1.71044 19.705 
-0.681094 -2.10172 19.695 
-0.180336 -2.11647 19.725 
-0.166945 -2.5225 19.725 
-0.662553 -2.66391 19.715 
-0.647103 -3.13241 19.695 
-0.629592 -3.66337 19.685 
-0.125743 -3.77182 19.745 
-0.611051 -4.22556 19.675 
-1.10769 -4.33574 19.735 
-0.60075 -4.53789 20.125 
-0.098962 -4.58388 19.665 
-0.59045 -4.85022 19.895 
-0.076301 -5.271 19.685 
-0.560579 -5.75598 19.665 
-0.559548 -5.78721 19.655 
-0.546158 -6.19324 19.645 
-0.0227385 -6.89512 19.665 
-1.02013 -6.99055 19.675 
-1.00468 -7.45904 19.685 
0.000952663 -7.61348 19.705 
0.0225837 -8.26937 19.795 
-0.461694 -8.75435 10.755 
-0.442123 -9.34778 10.695 
0.0617255 -9.45623 10.715 
-0.424612 -9.87874 10.745 
0.0782063 -9.95596 10.745 
-0.901679 -10.5823 10.785 
0.100867 -10.6431 10.805 
-0.817215 -13.1435 10.445 
0.188422 -13.2979 10.365 
0.270105 14.5637 13.565 
0.293796 13.8453 13.545 
-0.201812 13.7039 13.545 
-0.181211 13.0793 13.645 
0.320577 13.0333 13.565 
0.823396 12.9561 13.505 
-0.16164 12.4858 13.485 
0.342208 12.3774 13.495 
0.356629 11.9401 13.495 
0.868718 11.5818 13.465 
-0.122498 11.299 13.465 
0.887259 11.0196 13.455 
-0.0998373 10.6119 13.455 
0.402981 10.5346 13.485 
-0.0792364 9.98719 13.455 
0.92331 9.92645 13.435 
0.447273 9.19161 13.445 
0.471994 8.44202 13.445 
-0.0112531 7.92581 13.455 
0.990264 7.89631 13.465 
1.0088 7.33411 13.465 
0.013468 7.17622 13.485 
0.516286 7.099 13.495 
1.02838 6.74068 13.515 
0.034069 6.55156 13.525 
0.536887 6.47434 13.505 
0.553368 5.97461 13.545 
0.562639 5.69351 19.355 
0.579119 5.19379 20.205 
0.580149 5.16255 20.115 
0.0927818 4.77128 19.655 
0.59457 4.72529 19.685 
0.103082 4.45895 19.735 
1.10666 4.36698 19.675 
0.117503 4.02168 19.665 
0.629592 3.66337 19.635 
0.143254 3.24086 19.695 
0.646073 3.16364 19.675 
0.661523 2.69514 19.655 
0.182396 2.054 19.685 
0.685214 1.97678 19.695 
1.187 1.9308 20.355 
1.19627 1.6497 19.775 
0.708906 1.25843 19.695 
0.226688 0.710983 19.695 
0.728476 0.664998 19.695 
1.23129 0.58778 19.705 
0.242139 0.242488 19.695 
0.750107 0.00910466 19.715 
0.26171 -0.350939 19.715 
1.26323 -0.380444 19.705 
1.28383 -1.0051 19.725 
0.791309 -1.24022 19.715 
0.310122 -1.81889 19.935 
0.81088 -1.83364 19.755 
0.323513 -2.22492 19.995 
0.333813 -2.53725 19.745 
0.835602 -2.58324 19.735 
0.343084 -2.81835 20.195 
0.358534 -3.28684 20.255 
0.859293 -3.3016 19.675 
0.376045 -3.8178 19.695 
0.877833 -3.86379 19.685 
0.393556 -4.34877 19.675 
1.40331 -4.62813 19.665 
0.415187 -5.00466 19.655 
0.928306 -5.39421 19.645 
0.444028 -5.87918 19.645 
0.946847 -5.9564 19.675 
0.452269 -6.12905 19.655 
1.45688 -6.25225 19.665 
0.47081 -6.69124 19.655 
0.981868 -7.01832 19.695 
0.493471 -7.37837 19.665 
1.00247 -7.64298 19.765 
0.506861 -7.7844 19.765 
1.51044 -7.87637 19.945 
0.524372 -8.31536 19.575 
0.528492 -8.44029 10.735 
1.03131 -8.51751 10.735 
1.5434 -8.87582 10.715 
0.549093 -9.06495 10.695 
1.05191 -9.14217 10.705 
1.06427 -9.51697 10.725 
1.56606 -9.56295 10.715 
0.581025 -10.0332 10.765 
0.601626 -10.6578 10.815 
1.11165 -10.9537 10.785 
1.62992 -11.4994 10.785 
1.13329 -11.6096 10.835 
1.14977 -12.1093 10.915 
1.16625 -12.609 10.875 
1.66804 -12.655 10.815 
1.18273 -13.1088 10.905 
1.18376 -13.14 10.815 
0.6933 -13.4376 11.275 
1.19818 -13.5773 10.855 
1.21672 -14.1395 10.885 
1.71748 -14.1542 10.885 
1.25617 15.0027 13.705 
0.772923 14.4865 13.555 
1.2984 13.7221 13.545 
1.80122 13.6449 13.535 
1.32621 12.8788 13.515 
1.34476 12.3166 13.555 
1.86302 11.7709 13.725 
1.38287 11.161 13.455 
1.88363 11.1463 13.435 
1.40553 10.4739 13.435 
1.42716 9.818 13.425 
1.92895 9.77202 13.425 
1.92998 9.74078 13.405 
0.950092 9.11439 13.445 
1.95264 9.05366 13.435 
1.47557 8.35005 13.455 
1.97942 8.2416 13.455 
1.49411 7.78786 13.465 
1.52089 6.9758 13.505 
1.54149 6.35114 13.525 
1.08297 5.08533 19.955 
2.08448 5.05583 19.825 
2.08654 4.99336 19.825 
1.10048 4.55437 19.705 
2.10406 4.4624 19.695 
1.12314 3.86725 19.675 
1.62905 3.69633 19.675 
1.64965 3.07167 19.675 
2.1535 2.96322 19.685 
1.16537 2.58669 19.685 
1.66613 2.57194 19.685 
2.16895 2.49472 19.665 
1.17979 2.14943 19.765 
1.68158 2.10345 19.935 
2.1844 2.02623 20.355 
2.18543 1.99499 19.715 
1.69497 1.69742 20.365 
2.20088 1.5265 19.715 
1.71248 1.16645 19.725 
2.2153 1.08924 19.705 
1.73411 0.510562 19.695 
1.24675 0.119284 19.695 
2.24929 0.058547 19.715 
2.26577 -0.441181 19.705 
1.76811 -0.520128 19.705 
1.78459 -1.01986 19.725 
1.79386 -1.30095 19.715 
2.29358 -1.28447 19.735 
1.31267 -1.87963 19.725 
1.81446 -1.92561 19.725 
2.31728 -2.00283 19.725 
1.32812 -2.34812 19.735 
2.33582 -2.56503 19.715 
1.84124 -2.73767 19.705 
2.342 -2.75242 19.715 
1.8639 -3.4248 19.685 
2.86645 -3.48554 19.675 
1.37962 -3.90978 19.675 
2.38217 -3.97051 19.685 
2.40071 -4.53271 19.705 
1.90819 -4.76782 19.675 
2.42234 -5.1886 19.675 
1.43112 -5.47143 19.655 
2.4347 -5.5634 19.675 
1.94939 -6.01714 19.665 
1.95763 -6.267 19.685 
2.45839 -6.28176 19.715 
2.47281 -6.71902 19.725 
1.98545 -7.1103 19.685 
2.49135 -7.28121 19.735 
2.0009 -7.57879 19.745 
2.53565 -8.62423 10.755 
2.5511 -9.09273 10.755 
2.05652 -9.26537 10.735 
2.06888 -9.64017 10.715 
2.57067 -9.68616 10.705 
1.5846 -10.1251 10.735 
2.58715 -10.1859 10.725 
2.10287 -10.6709 10.755 
2.11626 -11.0769 10.755 
2.13686 -11.7015 10.775 
2.63968 -11.7788 10.775 
2.15231 -12.17 10.785 
2.65616 -12.2785 10.785 
2.17188 -12.7635 10.805 
2.68809 -13.2467 10.835 
1.69688 -13.5295 10.845 
2.70045 -13.6215 10.825 
2.21412 -14.044 10.875 
2.22133 -14.2627 10.935 
2.25975 14.9107 13.595 
2.76257 14.8335 13.575 
3.26435 14.7875 13.585 
2.27726 14.3798 13.545 
2.78111 14.2713 13.545 
2.8048 13.5529 13.525 
2.81716 13.1781 13.515 
2.33082 12.7556 13.515 
3.33337 12.6949 13.485 
2.34936 12.1934 13.485 
2.85218 12.1162 13.475 
2.36378 11.7562 13.455 
3.36942 11.6017 13.465 
2.37408 11.4438 13.465 
2.88823 11.0231 13.445 
2.39571 10.788 13.425 
2.41013 10.3507 13.425 
2.91295 10.2735 13.425 
2.93252 9.68005 13.435 
3.43534 9.60283 13.445 
2.45546 8.97644 13.435 
2.95725 8.93045 13.475 
3.46109 8.822 14.075 
2.48018 8.22685 13.455 
2.983 8.14963 13.475 
2.49769 7.69588 13.475 
3.00154 7.58743 13.475 
3.01699 7.11894 13.495 
2.52344 6.91506 13.505 
3.52805 6.79186 13.535 
3.04171 6.36935 13.535 
3.04892 6.15071 14.705 
2.58936 4.91615 20.435 
3.09115 4.87016 19.975 
2.60687 4.38518 19.815 
3.60633 4.41815 19.725 
3.11072 4.27673 19.715 
2.62748 3.76052 19.685 
3.13647 3.49591 19.705 
3.15707 2.87125 19.695 
2.67074 2.44874 19.715 
3.67431 2.35677 19.705 
2.69443 1.73038 19.695 
3.19622 1.68439 19.715 
2.71709 1.04325 19.695 
3.21888 0.997266 19.705 
3.7217 0.920048 19.705 
2.73769 0.418591 19.725 
3.74127 0.32662 19.715 
3.2539 -0.0646566 19.715 
3.25493 -0.0958896 19.715 
3.26729 -0.470686 19.725 
2.7758 -0.737031 19.725 
2.78919 -1.14306 19.725 
3.29201 -1.22028 19.685 
2.79846 -1.42416 19.735 
3.80307 -1.54736 19.735 
2.81906 -2.04882 19.745 
3.82161 -2.10956 19.745 
3.83603 -2.54682 19.725 
2.84585 -2.86088 19.695 
3.35278 -3.06303 19.695 
2.86851 -3.548 19.705 
3.37029 -3.59399 19.685 
2.88602 -4.07896 19.695 
3.40635 -4.68714 19.695 
2.91383 -4.92226 19.685 
3.91741 -5.01423 19.685 
3.42592 -5.28057 19.665 
2.93752 -5.64061 19.715 
3.94007 -5.70135 19.695 
3.45991 -6.31126 19.735 
2.96842 -6.57761 20.055 
3.48463 -7.06085 19.705 
3.0055 -7.70199 19.925 
3.50832 -7.77921 19.935 
3.53922 -8.7162 10.745 
3.54128 -8.77867 10.765 
3.55467 -9.1847 10.755 
3.0601 -9.35734 10.735 
3.07246 -9.73214 10.735 
3.57424 -9.77813 10.735 
3.091 -10.2943 10.735 
4.09457 -10.3863 10.725 
3.11881 -11.1376 10.745 
4.12136 -11.1984 10.755 
3.64326 -11.8707 10.765 
3.15692 -12.2932 10.765 
3.65974 -12.3705 10.795 
4.16256 -12.4477 10.775 
3.17546 -12.8554 10.795 
4.17801 -12.9162 10.805 
3.6927 -13.3699 10.805 
3.70403 -13.7135 10.835 
3.21254 -13.9798 10.855 
3.76614 14.7415 13.585 
4.26896 14.6643 13.545 
3.78468 14.1793 13.555 
3.30556 13.5382 13.525 
4.30913 13.4462 13.505 
3.82074 13.0862 13.505 
4.82431 12.9942 13.505 
3.83722 12.5864 13.475 
3.35397 12.0702 13.485 
4.35755 11.9783 13.485 
3.87224 11.5245 13.475 
4.38536 11.135 13.495 
3.89078 10.9623 13.445 
4.40287 10.604 13.455 
3.91653 10.1815 13.435 
4.42038 10.0731 13.435 
3.93816 9.52561 13.415 
4.46158 8.82373 13.415 
4.00511 7.49546 13.485 
4.52441 6.91852 13.525 
4.0319 6.6834 13.545 
4.07825 5.27792 20.145 
4.58004 5.23193 19.975 
5.08182 5.18595 19.975 
3.59191 4.85541 19.745 
4.59549 4.76344 19.785 
4.11018 4.30969 19.745 
3.6156 4.13705 19.725 
4.61815 4.07631 19.755 
4.63772 3.48288 19.775 
4.13799 3.4664 19.735 
3.65989 2.79403 19.715 
4.16168 2.74804 19.745 
4.6645 2.67083 19.825 
4.17816 2.24832 19.745 
5.18071 2.18758 19.885 
4.19876 1.62366 19.725 
4.70261 1.5152 19.815 
4.22451 0.84283 19.745 
4.24409 0.249402 19.745 
4.75926 -0.202612 19.775 
3.77217 -0.61037 19.745 
4.77472 -0.671108 19.765 
4.29559 -1.31225 19.725 
4.8015 -1.48317 19.875 
4.30898 -1.71828 19.745 
4.81283 -1.82673 19.975 
4.32649 -2.24924 19.865 
5.32904 -2.30998 19.995 
4.8427 -2.73249 19.965 
4.35121 -2.99883 19.755 
4.85918 -3.23222 19.765 
4.37284 -3.65473 19.695 
4.87566 -3.73194 19.735 
3.88959 -4.17093 19.675 
4.89317 -4.2629 19.735 
4.92098 -5.1062 19.695 
4.93952 -5.66839 19.745 
4.44391 -5.8098 19.705 
4.96115 -6.32428 19.685 
4.46864 -6.5594 19.705 
4.97145 -6.63661 19.715 
3.98951 -7.20054 19.735 
4.99515 -7.35497 19.755 
4.49748 -7.43392 19.745 
4.54383 -8.83941 10.745 
5.54741 -8.93138 10.775 
4.55825 -9.27667 10.755 
5.07652 -9.82238 10.805 
4.07706 -9.85534 10.735 
4.59636 -10.4323 10.785 
5.09815 -10.4783 10.755 
4.61387 -10.9633 10.735 
5.1239 -11.2591 10.755 
4.63756 -11.6816 10.745 
5.14862 -12.0087 10.765 
4.66538 -12.5249 10.805 
4.68186 -13.0246 10.795 
4.20685 -13.7907 10.855 
5.25503 15.1033 13.655 
5.27151 14.6036 13.555 
4.78826 14.0874 13.535 
5.29211 13.9789 13.535 
5.79287 13.9642 13.525 
4.80783 13.4939 13.495 
5.31683 13.2293 13.515 
5.32816 12.8858 13.505 
4.83976 12.5257 13.495 
5.34155 12.4797 13.475 
5.84437 12.4025 13.495 
5.36112 11.8863 13.475 
5.86394 11.8091 13.475 
5.37863 11.3553 13.495 
4.882 11.2452 13.555 
5.38996 11.0118 13.785 
5.89072 10.997 13.485 
4.90157 10.6517 14.135 
5.4085 10.4496 13.665 
5.90926 10.4348 13.465 
4.92114 10.0583 13.455 
5.42396 9.98108 13.465 
4.94174 9.43364 13.435 
5.44559 9.32519 13.495 
4.95513 9.02761 13.365 
5.45795 8.95039 13.775 
5.45898 8.91916 13.575 
5.51151 7.32627 13.285 
5.52696 6.85778 13.595 
5.53726 6.54545 13.945 
6.03905 6.49946 13.245 
5.03959 6.4665 13.685 
5.54653 6.26435 13.285 
5.62893 3.76571 20.575 
5.13745 3.49936 19.875 
5.13848 3.46813 19.515 
5.64027 3.42215 20.385 
5.65057 3.10982 20.105 
5.71546 1.14214 20.355 
5.72061 0.985971 13.235 
5.72885 0.736107 19.445 
5.73091 0.673641 20.455 
5.74121 0.361311 13.215 
6.24197 0.346558 13.215 
5.75048 0.0802134 20.425 
5.25384 -0.0299665 13.405 
6.25639 -0.090704 13.215 
